ply
format ascii 1.0
element vertex 1568
property float x
property float y
property float z
property uchar red
property uchar green
property uchar blue
end_header
0.3278 -0.4370 -0.0326 0 0 178
0.3215 -0.3673 -0.0318 0 0 180
0.3533 -0.3596 -0.0317 0 0 180
0.3278 -0.2923 -0.0324 0 0 178
0.3285 -0.2556 -0.0323 0 0 179
0.3247 -0.2246 -0.0316 0 0 181
0.3303 -0.1914 -0.0323 0 0 179
0.3319 -0.1308 -0.0323 0 0 179
0.3314 -0.0947 -0.0319 0 0 180
0.3285 -0.0537 -0.0314 0 0 181
0.3221 -0.0069 -0.0323 0 0 179
0.3262 0.0389 -0.0325 0 0 178
0.3348 0.0707 -0.0317 0 0 180
0.3261 0.0807 -0.0322 0 0 179
0.3331 0.1547 -0.0312 0 0 182
0.3260 0.1876 -0.0319 0 0 180
0.3210 0.2297 -0.0319 0 0 180
0.3390 0.2725 -0.0316 0 0 181
0.3342 0.3128 -0.0319 0 0 180
0.3300 0.3538 -0.0317 0 0 180
0.3368 0.3995 -0.0313 0 0 182
0.3389 0.4146 -0.0310 0 0 183
0.3203 0.4776 -0.0317 0 0 180
0.3596 0.4807 -0.0317 0 0 180
0.3441 0.5242 -0.0313 0 0 181
0.3326 0.5621 -0.0319 0 0 180
0.3302 0.6030 -0.0317 0 0 180
0.3232 0.6723 -0.0320 0 0 179
0.3272 0.6855 -0.0315 0 0 181
0.3464 0.7477 -0.0306 0 0 184
0.3298 0.7974 -0.0320 0 0 179
0.3410 0.8093 -0.0313 0 0 181
0.3228 0.8485 -0.0310 0 0 182
0.3202 0.9116 -0.0321 0 0 179
0.3313 0.9331 -0.0313 0 0 181
0.3206 0.9762 -0.0317 0 0 180
0.3317 1.0099 -0.0312 0 0 182
0.3216 1.0570 -0.0313 0 0 181
0.3305 1.1017 -0.0317 0 0 180
0.3522 1.1507 -0.0306 0 0 184
0.3247 1.1827 -0.0302 0 0 185
0.3207 1.2256 -0.0317 0 0 180
0.3271 1.2776 -0.0306 0 0 183
0.3266 1.3068 -0.0313 0 0 181
0.3337 1.3324 -0.0317 0 0 180
0.3294 1.3812 -0.0310 0 0 182
0.3225 1.3932 0.0293 0 103 255
0.3225 1.3933 0.0680 0 216 255
0.3225 1.3933 0.1068 74 255 180
0.3225 1.3933 0.1456 187 255 67
0.3225 1.3933 0.1844 255 209 0
0.3225 1.3933 0.2232 255 96 0
0.3225 1.3934 0.2620 238 0 0
0.3226 1.3934 0.3007 127 0 0
0.3226 1.3934 0.3589 127 0 0
0.3226 1.3935 0.3977 127 0 0
0.3407 1.4317 -0.0130 0 0 235
0.3407 1.4318 0.0226 0 84 255
0.3407 1.4318 0.0582 0 187 255
0.3407 1.4318 0.0938 36 255 218
0.3407 1.4318 0.1294 140 255 114
0.3407 1.4319 0.1650 244 255 10
0.3407 1.4319 0.2362 255 58 0
0.3407 1.4319 0.2718 209 0 0
0.3407 1.4320 0.3074 127 0 0
0.3407 1.4320 0.3430 127 0 0
0.3407 1.4320 0.3786 127 0 0
0.3455 1.4685 -0.0123 0 0 237
0.3455 1.4685 0.0232 0 85 255
0.3455 1.4686 0.0586 0 189 255
0.3455 1.4686 0.0941 37 255 217
0.3455 1.4686 0.1295 140 255 114
0.3455 1.4687 0.1650 244 255 10
0.3455 1.4687 0.2359 255 59 0
0.3455 1.4688 0.2714 210 0 0
0.3455 1.4688 0.3068 127 0 0
0.3455 1.4688 0.3423 127 0 0
0.3455 1.4689 0.3777 127 0 0
0.3774 -2.5680 -0.0021 0 12 255
0.3774 -2.5680 0.0258 0 93 255
0.3774 -2.5680 0.0536 0 174 255
0.3774 -2.5680 0.1093 81 255 173
0.3774 -2.5680 0.1372 162 255 92
0.3774 -2.5680 0.1928 255 184 0
0.3774 -2.5680 0.2207 255 103 0
0.3774 -2.5680 0.2764 196 0 0
0.3774 -2.5680 0.3042 127 0 0
0.3774 -2.5680 0.3599 127 0 0
0.3774 -2.5680 0.3877 127 0 0
0.3861 -2.5559 -0.0197 0 0 215
0.3861 -2.5559 0.0331 0 114 255
0.3861 -2.5559 0.0595 0 191 255
0.3861 -2.5559 0.1122 90 255 164
0.3861 -2.5559 0.1386 167 255 87
0.3861 -2.5558 0.1914 255 189 0
0.3861 -2.5558 0.2178 255 112 0
0.3861 -2.5558 0.2705 213 0 0
0.3861 -2.5558 0.2969 136 0 0
0.3861 -2.5558 0.3497 127 0 0
0.3861 -2.5558 0.3761 127 0 0
0.3888 -2.5164 -0.0320 0 0 179
0.3925 -2.4614 -0.0316 0 0 181
0.3934 -2.4351 -0.0320 0 0 179
0.3833 -2.3813 -0.0313 0 0 181
0.3862 -2.3407 -0.0319 0 0 180
0.3846 -2.2956 -0.0313 0 0 181
0.3853 -2.2644 -0.0291 0 0 188
0.3911 -2.2279 -0.0324 0 0 178
0.3880 -2.1985 -0.0319 0 0 180
0.3842 -2.1264 -0.0316 0 0 181
0.3824 -2.0907 -0.0315 0 0 181
0.3853 -2.0533 -0.0323 0 0 179
0.3930 -2.0057 -0.0295 0 0 187
0.3816 -1.9970 -0.0314 0 0 181
0.3849 -1.9220 -0.0318 0 0 180
0.3655 -1.9188 -0.0318 0 0 180
0.3869 -1.8574 -0.0325 0 0 178
0.3856 -1.8045 -0.0298 0 0 186
0.3994 -1.7933 -0.0298 0 0 186
0.3855 -1.7545 -0.0319 0 0 180
0.3853 -1.7183 -0.0325 0 0 178
0.3667 -1.6464 -0.0301 0 0 185
0.3920 -1.6260 -0.0301 0 0 185
0.3904 -1.5645 -0.0318 0 0 180
0.3952 -1.5248 -0.0326 0 0 178
0.3858 -1.4840 -0.0303 0 0 184
0.3975 -1.4745 -0.0303 0 0 184
0.3936 -1.4360 -0.0327 0 0 177
0.3804 -1.3620 -0.0305 0 0 184
0.3994 -1.3628 0.0285 0 101 255
0.3994 -1.3628 0.0740 0 233 255
0.3994 -1.3628 0.1195 111 255 143
0.3994 -1.3628 0.1498 199 255 55
0.3994 -1.3628 0.1953 255 177 0
0.3994 -1.3627 0.2257 255 89 0
0.3994 -1.3627 0.2712 211 0 0
0.3994 -1.3627 0.3167 127 0 0
0.3994 -1.3627 0.3470 127 0 0
0.3994 -1.3627 0.3925 127 0 0
0.3913 -1.3532 -0.0305 0 0 184
0.3928 -1.3529 0.0295 0 104 255
0.3928 -1.3529 0.0747 0 235 255
0.3928 -1.3529 0.1198 112 255 142
0.3928 -1.3529 0.1537 211 255 43
0.3928 -1.3529 0.1989 255 167 0
0.3928 -1.3529 0.2328 255 68 0
0.3928 -1.3528 0.2779 191 0 0
0.3928 -1.3528 0.3118 127 0 0
0.3928 -1.3528 0.3570 127 0 0
0.3928 -1.3528 0.3909 127 0 0
0.3741 -1.3044 -0.0323 0 0 179
0.3830 -1.2981 0.0359 0 122 255
0.3830 -1.2980 0.0711 0 225 255
0.3830 -1.2979 0.1181 107 255 147
0.3829 -1.2979 0.1533 209 255 45
0.3829 -1.2978 0.1885 255 197 0
0.3829 -1.2977 0.2354 255 60 0
0.3829 -1.2977 0.2706 213 0 0
0.3828 -1.2976 0.3175 127 0 0
0.3828 -1.2975 0.3527 127 0 0
0.3828 -1.2975 0.3879 127 0 0
0.3656 -1.2643 -0.0307 0 0 183
0.3711 -1.2618 0.0344 0 118 255
0.3708 -1.2610 0.0780 0 245 255
0.3705 -1.2604 0.1107 85 255 169
0.3702 -1.2595 0.1541 212 255 42
0.3699 -1.2587 0.1976 255 171 0
0.3697 -1.2581 0.2301 255 76 0
0.3694 -1.2573 0.2734 205 0 0
0.3691 -1.2565 0.3166 127 0 0
0.3688 -1.2556 0.3598 127 0 0
0.3686 -1.2550 0.3921 127 0 0
0.3666 -1.2375 -0.0094 0 0 245
0.3666 -1.2375 0.0279 0 99 255
0.3666 -1.2375 0.0778 0 244 255
0.3666 -1.2375 0.1152 98 255 156
0.3666 -1.2375 0.1525 207 255 47
0.3666 -1.2375 0.1899 255 193 0
0.3666 -1.2375 0.2398 255 48 0
0.3666 -1.2375 0.2771 194 0 0
0.3666 -1.2375 0.3145 127 0 0
0.3666 -1.2375 0.3519 127 0 0
0.3666 -1.2375 0.3893 127 0 0
0.3651 -1.1817 -0.0327 0 0 177
0.3632 -1.1227 -0.0326 0 0 178
0.3975 -1.0943 -0.0323 0 0 179
0.3938 -1.0866 0.0354 0 121 255
0.3937 -1.0867 0.0786 0 247 255
0.3937 -1.0867 0.1132 93 255 161
0.3937 -1.0868 0.1564 218 255 36
0.3937 -1.0868 0.1996 255 165 0
0.3937 -1.0868 0.2341 255 64 0
0.3937 -1.0869 0.2773 193 0 0
0.3972 -1.1002 0.3179 127 0 0
0.3936 -1.0870 0.3550 127 0 0
0.3972 -1.1003 0.3944 127 0 0
0.3951 -1.0595 -0.0310 0 0 182
0.3823 -1.0439 0.0377 0 128 255
0.3823 -1.0440 0.0741 0 234 255
0.3822 -1.0440 0.1196 111 255 143
0.3822 -1.0441 0.1559 217 255 37
0.3822 -1.0441 0.1923 255 186 0
0.3822 -1.0442 0.2377 255 54 0
0.3900 -1.0731 0.2792 188 0 0
0.3822 -1.0442 0.3195 127 0 0
0.3899 -1.0732 0.3582 127 0 0
0.3861 -1.0590 0.3972 127 0 0
0.3734 -1.0013 -0.0311 0 0 182
0.3937 -1.0179 0.0399 0 134 255
0.3937 -1.0179 0.0790 0 248 255
0.3977 -1.0327 0.1191 110 255 144
0.3977 -1.0327 0.1573 221 255 33
0.3978 -1.0327 0.1956 255 176 0
0.3978 -1.0328 0.2339 255 65 0
0.3979 -1.0328 0.2798 186 0 0
0.3979 -1.0329 0.3180 127 0 0
0.3979 -1.0329 0.3563 127 0 0
0.3980 -1.0329 0.3945 127 0 0
0.3989 -0.9808 -0.0311 0 0 182
0.3807 -0.9697 0.0398 0 134 255
0.3853 -0.9865 0.0752 0 237 255
0.3853 -0.9865 0.1160 101 255 153
0.3853 -0.9866 0.1568 220 255 34
0.3854 -0.9866 0.1977 255 170 0
0.3854 -0.9867 0.2385 255 51 0
0.3855 -0.9867 0.2793 187 0 0
0.3855 -0.9867 0.3119 127 0 0
0.3855 -0.9868 0.3527 127 0 0
0.3856 -0.9868 0.3935 127 0 0
0.3862 -0.9233 -0.0313 0 0 182
0.3954 -0.9348 0.0372 0 126 255
0.3954 -0.9348 0.0798 0 250 255
0.3954 -0.9348 0.1118 88 255 166
0.3954 -0.9348 0.1544 213 255 41
0.3954 -0.9348 0.1969 255 172 0
0.3954 -0.9348 0.2395 255 48 0
0.3954 -0.9348 0.2715 210 0 0
0.3954 -0.9348 0.3140 127 0 0
0.3954 -0.9348 0.3566 127 0 0
0.3954 -0.9348 0.3886 127 0 0
0.3942 -0.9168 -0.0312 0 0 182
0.3997 -0.9187 0.0392 0 132 255
0.3997 -0.9187 0.0706 0 224 255
0.3997 -0.9187 0.1126 91 255 163
0.3997 -0.9187 0.1545 213 255 41
0.3997 -0.9187 0.1965 255 174 0
0.3997 -0.9187 0.2384 255 52 0
0.3997 -0.9187 0.2698 215 0 0
0.3997 -0.9187 0.3118 127 0 0
0.3997 -0.9187 0.3537 127 0 0
0.3997 -0.9187 0.3957 127 0 0
0.3977 -0.8530 -0.0313 0 0 181
0.3935 -0.8011 -0.0314 0 0 181
0.3758 -0.7650 -0.0315 0 0 181
0.3967 -0.7482 -0.0315 0 0 181
0.3996 -0.6999 -0.0316 0 0 181
0.3959 -0.6608 -0.0317 0 0 180
0.3986 -0.6198 -0.0317 0 0 180
0.3952 -0.5867 -0.0318 0 0 180
0.3978 -0.5514 -0.0318 0 0 180
0.3970 -0.4924 -0.0319 0 0 180
0.3993 -0.4638 -0.0320 0 0 180
0.3672 -0.4339 -0.0326 0 0 178
0.3704 -0.3602 -0.0319 0 0 180
0.3691 -0.3557 -0.0317 0 0 180
0.3700 -0.2889 -0.0324 0 0 178
0.3678 -0.2525 -0.0323 0 0 179
0.3766 -0.2121 -0.0316 0 0 181
0.3605 -0.1890 -0.0323 0 0 179
0.3712 -0.1277 -0.0323 0 0 179
0.3671 -0.0967 -0.0319 0 0 180
0.3665 -0.0446 -0.0314 0 0 181
0.3780 -0.0399 -0.0322 0 0 179
0.3615 0.0205 -0.0326 0 0 178
0.3741 0.0684 -0.0317 0 0 180
0.3682 0.0840 -0.0322 0 0 179
0.3752 0.1451 -0.0315 0 0 181
0.3754 0.1648 -0.0312 0 0 182
0.3602 0.2329 -0.0319 0 0 180
0.3608 0.2712 -0.0316 0 0 181
0.3699 0.3157 -0.0319 0 0 180
0.3693 0.3569 -0.0317 0 0 180
0.3613 0.3979 -0.0313 0 0 182
0.3627 0.4203 -0.0309 0 0 183
0.3780 0.4410 -0.0319 0 0 180
0.3792 0.4822 -0.0317 0 0 180
0.3921 0.5560 -0.0329 0 0 177
0.3922 0.5989 -0.0328 0 0 177
0.3958 0.6387 -0.0328 0 0 177
0.3889 0.6511 -0.0328 0 0 177
0.3992 0.7184 -0.0309 0 0 183
0.3734 0.7541 -0.0306 0 0 184
0.3700 0.7912 -0.0323 0 0 179
0.3655 0.8112 -0.0313 0 0 181
0.3787 0.8453 -0.0310 0 0 182
0.3656 0.9131 -0.0321 0 0 179
0.3802 0.9369 -0.0313 0 0 181
0.3795 0.9809 -0.0317 0 0 180
0.3876 1.0145 -0.0312 0 0 182
0.3705 1.0608 -0.0313 0 0 181
0.3697 1.1047 -0.0317 0 0 180
0.3847 1.1485 -0.0305 0 0 184
0.3877 1.1974 -0.0301 0 0 185
0.3796 1.2302 -0.0317 0 0 180
0.3922 1.2738 -0.0306 0 0 183
0.3755 1.3106 -0.0313 0 0 181
0.3730 1.3338 -0.0317 0 0 180
0.3852 1.3856 -0.0310 0 0 182
0.3657 1.4344 -0.0313 0 0 181
0.3681 1.4389 0.0266 0 95 255
0.3681 1.4389 0.0785 0 247 255
0.3681 1.4389 0.1131 92 255 162
0.3681 1.4389 0.1477 193 255 61
0.3681 1.4389 0.1996 255 165 0
0.3681 1.4389 0.2342 255 64 0
0.3681 1.4389 0.2688 218 0 0
0.3681 1.4389 0.3034 127 0 0
0.3681 1.4389 0.3552 127 0 0
0.3681 1.4389 0.3898 127 0 0
0.3797 1.4709 -0.0152 0 0 228
0.3797 1.4709 0.0208 0 78 255
0.3797 1.4709 0.0569 0 183 255
0.3797 1.4709 0.0929 33 255 221
0.3797 1.4710 0.1290 139 255 115
0.3797 1.4710 0.1650 244 255 10
0.3798 1.4710 0.2371 255 55 0
0.3798 1.4711 0.2731 205 0 0
0.3798 1.4711 0.3092 127 0 0
0.3798 1.4711 0.3452 127 0 0
0.3798 1.4711 0.3813 127 0 0
0.3822 1.5052 -0.0137 0 0 233
0.3822 1.5052 0.0220 0 82 255
0.3822 1.5053 0.0578 0 186 255
0.3822 1.5053 0.0935 35 255 219
0.3822 1.5053 0.1293 139 255 115
0.3822 1.5054 0.1650 244 255 10
0.3822 1.5054 0.2365 255 57 0
0.3822 1.5055 0.2722 208 0 0
0.3822 1.5055 0.3080 127 0 0
0.3822 1.5055 0.3437 127 0 0
0.3822 1.5056 0.3795 127 0 0
0.4397 -2.5842 -0.0073 0 0 252
0.4397 -2.5842 0.0173 0 68 255
0.4397 -2.5842 0.0666 0 212 255
0.4397 -2.5841 0.1158 100 255 154
0.4397 -2.5841 0.1404 172 255 82
0.4397 -2.5841 0.1896 255 194 0
0.4397 -2.5840 0.2388 255 50 0
0.4397 -2.5840 0.2634 234 0 0
0.4397 -2.5840 0.3126 127 0 0
0.4397 -2.5839 0.3372 127 0 0
0.4397 -2.5839 0.3865 127 0 0
0.4323 -2.5404 -0.0285 0 0 190
0.4366 -2.5559 0.0335 0 115 255
0.4366 -2.5559 0.0598 0 192 255
0.4366 -2.5559 0.1124 90 255 164
0.4366 -2.5558 0.1387 167 255 87
0.4366 -2.5558 0.1913 255 189 0
0.4366 -2.5558 0.2176 255 112 0
0.4366 -2.5558 0.2702 214 0 0
0.4366 -2.5558 0.2965 137 0 0
0.4366 -2.5558 0.3491 127 0 0
0.4366 -2.5558 0.3754 127 0 0
0.4186 -2.4830 -0.0322 0 0 179
0.4361 -2.4590 -0.0316 0 0 181
0.4259 -2.4303 -0.0320 0 0 179
0.4317 -2.3893 -0.0313 0 0 181
0.4299 -2.3382 -0.0319 0 0 180
0.4275 -2.3018 -0.0313 0 0 182
0.4021 -2.2508 -0.0291 0 0 188
0.4357 -2.2236 -0.0290 0 0 188
0.4234 -2.1933 -0.0319 0 0 180
0.4273 -2.1335 -0.0316 0 0 181
0.4210 -2.0963 -0.0314 0 0 181
0.4242 -2.0598 -0.0323 0 0 179
0.4282 -2.0253 -0.0324 0 0 178
0.4385 -1.9690 -0.0295 0 0 187
0.4237 -1.9285 -0.0318 0 0 180
0.4371 -1.8934 -0.0324 0 0 178
0.4227 -1.8584 -0.0325 0 0 178
0.4330 -1.8308 -0.0323 0 0 179
0.4270 -1.7711 -0.0298 0 0 186
0.4032 -1.7574 -0.0319 0 0 180
0.4346 -1.7197 -0.0325 0 0 178
0.4372 -1.6731 -0.0317 0 0 180
0.4174 -1.6055 -0.0301 0 0 185
0.4301 -1.5953 -0.0301 0 0 185
0.4369 -1.5317 -0.0326 0 0 178
0.4381 -1.5210 0.0328 0 113 255
0.4381 -1.5210 0.0706 0 223 255
0.4381 -1.5210 0.1178 106 255 148
0.4381 -1.5210 0.1556 216 255 38
0.4381 -1.5210 0.1933 255 183 0
0.4381 -1.5210 0.2311 255 73 0
0.4381 -1.5210 0.2783 190 0 0
0.4381 -1.5210 0.3161 127 0 0
0.4400 -1.5283 0.3496 127 0 0
0.4400 -1.5282 0.3930 127 0 0
0.4313 -1.5038 -0.0321 0 0 179
0.4319 -1.4984 0.0380 0 129 255
0.4319 -1.4984 0.0727 0 229 255
0.4400 -1.5187 0.1111 86 255 168
0.4396 -1.5178 0.1515 204 255 50
0.4393 -1.5168 0.1919 255 187 0
0.4390 -1.5159 0.2323 255 69 0
0.4387 -1.5149 0.2726 207 0 0
0.4383 -1.5140 0.3128 127 0 0
0.4380 -1.5130 0.3530 127 0 0
0.4377 -1.5121 0.3931 127 0 0
0.4209 -1.4557 -0.0303 0 0 184
0.4281 -1.4659 0.0306 0 107 255
0.4281 -1.4659 0.0710 0 224 255
0.4281 -1.4658 0.1113 87 255 167
0.4281 -1.4657 0.1516 204 255 50
0.4280 -1.4657 0.1919 255 187 0
0.4280 -1.4656 0.2322 255 70 0
0.4280 -1.4655 0.2725 207 0 0
0.4280 -1.4654 0.3127 127 0 0
0.4279 -1.4653 0.3530 127 0 0
0.4279 -1.4653 0.3933 127 0 0
0.4066 -1.4381 -0.0327 0 0 177
0.4152 -1.4329 0.0311 0 108 255
0.4150 -1.4325 0.0713 0 226 255
0.4148 -1.4320 0.1115 88 255 166
0.4147 -1.4316 0.1516 205 255 49
0.4145 -1.4312 0.1917 255 187 0
0.4144 -1.4307 0.2318 255 71 0
0.4142 -1.4303 0.2719 209 0 0
0.4141 -1.4298 0.3119 127 0 0
0.4139 -1.4294 0.3519 127 0 0
0.4138 -1.4289 0.3919 127 0 0
0.4007 -1.3970 -0.0322 0 0 179
0.4021 -1.3773 0.0324 0 112 255
0.4018 -1.3765 0.0686 0 218 255
0.4015 -1.3755 0.1169 103 255 151
0.4012 -1.3748 0.1530 209 255 45
0.4009 -1.3740 0.1890 255 195 0
0.4006 -1.3730 0.2371 255 55 0
0.4003 -1.3723 0.2730 206 0 0
0.4001 -1.3715 0.3089 127 0 0
0.4001 -1.3798 0.3543 127 0 0
0.4001 -1.3798 0.3937 127 0 0
0.4340 -1.2801 -0.0327 0 0 177
0.4351 -1.2404 -0.0034 0 8 255
0.4351 -1.2405 0.0387 0 130 255
0.4351 -1.2405 0.0738 0 233 255
0.4351 -1.2405 0.1159 100 255 154
0.4351 -1.2406 0.1580 223 255 31
0.4374 -1.2494 0.1996 255 165 0
0.4350 -1.2406 0.2352 255 61 0
0.4350 -1.2407 0.2772 193 0 0
0.4350 -1.2407 0.3193 127 0 0
0.4373 -1.2495 0.3588 127 0 0
0.4396 -1.2581 0.3972 127 0 0
0.4368 -1.2069 -0.0307 0 0 183
0.4250 -1.2027 0.0389 0 131 255
0.4249 -1.2028 0.0760 0 239 255
0.4249 -1.2028 0.1131 92 255 162
0.4249 -1.2029 0.1576 222 255 32
0.4249 -1.2029 0.1947 255 179 0
0.4249 -1.2029 0.2391 255 49 0
0.4326 -1.2316 0.2788 189 0 0
0.4275 -1.2128 0.3185 127 0 0
0.4300 -1.2224 0.3596 127 0 0
0.4300 -1.2224 0.3956 127 0 0
0.4367 -1.1644 -0.0322 0 0 179
0.4136 -1.1605 0.0392 0 132 255
0.4136 -1.1605 0.0785 0 247 255
0.4136 -1.1606 0.1178 106 255 148
0.4136 -1.1606 0.1571 221 255 33
0.4135 -1.1606 0.1964 255 174 0
0.4135 -1.1607 0.2357 255 59 0
0.4193 -1.1825 0.2794 187 0 0
0.4165 -1.1718 0.3198 127 0 0
0.4164 -1.1718 0.3585 127 0 0
0.4164 -1.1719 0.3972 127 0 0
0.4194 -1.1248 -0.0309 0 0 183
0.4213 -1.1207 0.0380 0 129 255
0.4243 -1.1315 0.0797 0 250 255
0.4271 -1.1420 0.1199 112 255 142
0.4271 -1.1420 0.1586 225 255 29
0.4272 -1.1420 0.1972 255 171 0
0.4272 -1.1420 0.2359 255 59 0
0.4272 -1.1421 0.2746 201 0 0
0.4273 -1.1421 0.3197 127 0 0
0.4273 -1.1421 0.3583 127 0 0
0.4273 -1.1422 0.3970 127 0 0
0.4385 -1.1095 -0.0309 0 0 183
0.4120 -1.0858 0.0378 0 128 255
0.4183 -1.1095 0.0765 0 241 255
0.4184 -1.1096 0.1174 105 255 149
0.4184 -1.1096 0.1582 224 255 30
0.4185 -1.1096 0.1990 255 166 0
0.4185 -1.1097 0.2398 255 47 0
0.4185 -1.1097 0.2738 203 0 0
0.4186 -1.1097 0.3147 127 0 0
0.4186 -1.1098 0.3555 127 0 0
0.4186 -1.1098 0.3963 127 0 0
0.4130 -1.0450 -0.0310 0 0 182
0.4014 -1.0467 0.0375 0 127 255
0.4086 -1.0733 0.0785 0 247 255
0.4087 -1.0734 0.1146 97 255 157
0.4087 -1.0734 0.1578 223 255 31
0.4087 -1.0734 0.1938 255 181 0
0.4088 -1.0735 0.2370 255 56 0
0.4088 -1.0735 0.2730 206 0 0
0.4088 -1.0735 0.3162 127 0 0
0.4089 -1.0736 0.3594 127 0 0
0.4089 -1.0736 0.3954 127 0 0
0.4220 -1.0378 -0.0310 0 0 182
0.4027 -0.9861 -0.0328 0 0 177
0.4098 -0.9273 -0.0033 0 8 255
0.4097 -0.9272 0.0388 0 131 255
0.4011 -0.9591 0.0792 0 248 255
0.4096 -0.9270 0.1124 90 255 164
0.4096 -0.9269 0.1545 213 255 41
0.4096 -0.9268 0.1965 255 173 0
0.4095 -0.9268 0.2386 255 51 0
0.4095 -0.9267 0.2701 214 0 0
0.4095 -0.9266 0.3122 127 0 0
0.4094 -0.9265 0.3542 127 0 0
0.4094 -0.9264 0.3962 127 0 0
0.4180 -0.8965 -0.0001 0 17 255
0.4139 -0.9117 0.0400 0 134 255
0.4219 -0.8814 0.0730 0 231 255
0.4219 -0.8814 0.1139 95 255 159
0.4218 -0.8813 0.1548 214 255 40
0.4218 -0.8812 0.1956 255 176 0
0.4217 -0.8811 0.2365 255 57 0
0.4217 -0.8810 0.2773 193 0 0
0.4217 -0.8809 0.3182 127 0 0
0.4216 -0.8809 0.3590 127 0 0
0.4216 -0.8808 0.3896 127 0 0
0.4297 -0.8526 -0.0055 0 2 255
0.4297 -0.8525 0.0346 0 119 255
0.4297 -0.8524 0.0748 0 236 255
0.4296 -0.8523 0.1149 97 255 157
0.4296 -0.8523 0.1550 214 255 40
0.4295 -0.8522 0.1951 255 178 0
0.4295 -0.8521 0.2352 255 61 0
0.4295 -0.8520 0.2752 199 0 0
0.4294 -0.8519 0.3153 127 0 0
0.4294 -0.8519 0.3554 127 0 0
0.4293 -0.8518 0.3954 127 0 0
0.4372 -0.8246 -0.0024 0 11 255
0.4372 -0.8245 0.0370 0 126 255
0.4371 -0.8245 0.0764 0 240 255
0.4371 -0.8244 0.1158 100 255 154
0.4371 -0.8243 0.1552 215 255 39
0.4370 -0.8242 0.1945 255 179 0
0.4370 -0.8242 0.2339 255 65 0
0.4369 -0.8241 0.2732 205 0 0
0.4369 -0.8240 0.3126 127 0 0
0.4369 -0.8239 0.3519 127 0 0
0.4368 -0.8239 0.3912 127 0 0
0.4373 -0.7659 -0.0314 0 0 181
0.4397 -0.7691 0.0392 0 132 255
0.4397 -0.7691 0.0752 0 237 255
0.4365 -0.7809 0.1195 111 255 143
0.4397 -0.7691 0.1560 217 255 37
0.4397 -0.7691 0.1920 255 187 0
0.4397 -0.7691 0.2369 255 56 0
0.4397 -0.7691 0.2728 206 0 0
0.4397 -0.7691 0.3177 127 0 0
0.4397 -0.7691 0.3537 127 0 0
0.4397 -0.7691 0.3896 127 0 0
0.4315 -0.7202 -0.0315 0 0 181
0.4385 -0.7146 -0.0315 0 0 181
0.4396 -0.6678 -0.0316 0 0 181
0.4342 -0.6300 -0.0316 0 0 181
0.4372 -0.5725 -0.0329 0 0 177
0.4364 -0.5234 -0.0329 0 0 177
0.4391 -0.5174 -0.0329 0 0 177
0.4394 -0.4584 -0.0319 0 0 180
0.4351 -0.4351 -0.0320 0 0 180
0.4031 -0.3623 -0.0319 0 0 180
0.4009 -0.3480 -0.0317 0 0 180
0.4122 -0.2855 -0.0324 0 0 178
0.4072 -0.2494 -0.0323 0 0 179
0.4112 -0.2037 -0.0315 0 0 181
0.4285 -0.1995 -0.0315 0 0 181
0.4105 -0.1246 -0.0323 0 0 179
0.4029 -0.0988 -0.0319 0 0 180
0.4060 -0.0588 -0.0316 0 0 181
0.4382 -0.0458 0.5118 127 0 0
0.4382 -0.0458 0.5465 127 0 0
0.4382 -0.0458 0.5986 127 0 0
0.4382 -0.0458 0.6333 127 0 0
0.4382 -0.0458 0.6679 127 0 0
0.4382 -0.0458 0.7026 127 0 0
0.4046 -0.0354 -0.0314 0 0 181
0.4139 0.0004 -0.0323 0 0 179
0.4347 0.0354 0.2259 255 88 0
0.4347 0.0352 0.2665 225 0 0
0.4346 0.0349 0.3070 127 0 0
0.4346 0.0347 0.3476 127 0 0
0.4345 0.0345 0.3881 127 0 0
0.4345 0.0342 0.4287 127 0 0
0.4345 0.0340 0.4692 127 0 0
0.4344 0.0337 0.5097 127 0 0
0.4344 0.0335 0.5502 127 0 0
0.4343 0.0332 0.5908 127 0 0
0.4343 0.0330 0.6312 127 0 0
0.4343 0.0328 0.6717 127 0 0
0.4342 0.0325 0.7122 127 0 0
0.4134 0.0662 -0.0317 0 0 180
0.4104 0.0873 -0.0322 0 0 179
0.4187 0.1423 -0.0314 0 0 181
0.4346 0.1542 0.2296 255 77 0
0.4346 0.1539 0.2726 207 0 0
0.4345 0.1537 0.3157 127 0 0
0.4345 0.1534 0.3587 127 0 0
0.4345 0.1532 0.3802 127 0 0
0.4344 0.1530 0.4232 127 0 0
0.4344 0.1527 0.4662 127 0 0
0.4343 0.1524 0.5092 127 0 0
0.4343 0.1521 0.5522 127 0 0
0.4342 0.1519 0.5952 127 0 0
0.4342 0.1516 0.6381 127 0 0
0.4342 0.1515 0.6596 127 0 0
0.4341 0.1512 0.7026 127 0 0
0.4176 0.1749 -0.0311 0 0 182
0.4192 0.2377 -0.0319 0 0 180
0.4044 0.2687 -0.0316 0 0 181
0.4056 0.3185 -0.0319 0 0 180
0.4345 0.2884 0.2338 255 65 0
0.4344 0.2881 0.2796 186 0 0
0.4344 0.2879 0.3026 127 0 0
0.4344 0.2876 0.3484 127 0 0
0.4343 0.2873 0.3942 127 0 0
0.4343 0.2870 0.4400 127 0 0
0.4343 0.2868 0.4629 127 0 0
0.4342 0.2865 0.5087 127 0 0
0.4342 0.2862 0.5544 127 0 0
0.4341 0.2861 0.5773 127 0 0
0.4341 0.2857 0.6231 127 0 0
0.4340 0.2854 0.6688 127 0 0
0.4340 0.2851 0.7145 127 0 0
0.4085 0.3599 -0.0317 0 0 180
0.4102 0.3947 -0.0312 0 0 182
0.4101 0.4316 -0.0309 0 0 183
0.4342 0.4398 0.4346 127 0 0
0.4341 0.4396 0.4591 127 0 0
0.4341 0.4392 0.5080 127 0 0
0.4340 0.4389 0.5570 127 0 0
0.4340 0.4387 0.5815 127 0 0
0.4340 0.4384 0.6304 127 0 0
0.4339 0.4380 0.6793 127 0 0
0.4339 0.4378 0.7037 127 0 0
0.4374 0.4756 -0.0329 0 0 177
0.4344 0.4412 0.2386 255 51 0
0.4343 0.4410 0.2631 235 0 0
0.4343 0.4407 0.3121 127 0 0
0.4343 0.4405 0.3366 127 0 0
0.4342 0.4401 0.3856 127 0 0
0.4391 0.5157 -0.0328 0 0 177
0.4156 0.5573 -0.0328 0 0 177
0.4201 0.5956 -0.0328 0 0 177
0.4248 0.6368 -0.0328 0 0 177
0.4342 0.6166 0.2704 213 0 0
0.4341 0.6164 0.2967 137 0 0
0.4341 0.6160 0.3494 127 0 0
0.4341 0.6158 0.3757 127 0 0
0.4340 0.6154 0.4284 127 0 0
0.4340 0.6152 0.4547 127 0 0
0.4339 0.6148 0.5073 127 0 0
0.4339 0.6143 0.5599 127 0 0
0.4339 0.6141 0.5862 127 0 0
0.4338 0.6137 0.6388 127 0 0
0.4338 0.6135 0.6650 127 0 0
0.4337 0.6131 0.7176 127 0 0
0.4336 0.6745 -0.0328 0 0 177
0.4187 0.7010 -0.0328 0 0 177
0.4354 0.7289 -0.0328 0 0 177
0.4005 0.7605 -0.0306 0 0 184
0.4144 0.8151 -0.0313 0 0 181
0.4341 0.8209 0.2220 255 99 0
0.4340 0.8205 0.2789 189 0 0
0.4340 0.8202 0.3074 127 0 0
0.4339 0.8200 0.3358 127 0 0
0.4339 0.8195 0.3927 127 0 0
0.4339 0.8193 0.4211 127 0 0
0.4338 0.8188 0.4780 127 0 0
0.4338 0.8186 0.5064 127 0 0
0.4337 0.8183 0.5349 127 0 0
0.4337 0.8178 0.5917 127 0 0
0.4337 0.8176 0.6201 127 0 0
0.4336 0.8171 0.6769 127 0 0
0.4336 0.8169 0.7053 127 0 0
0.4067 0.8437 -0.0310 0 0 182
0.4179 0.9173 -0.0121 0 0 237
0.4179 0.9173 0.0174 0 68 255
0.4179 0.9172 0.0764 0 240 255
0.4179 0.9172 0.1060 71 255 183
0.4179 0.9172 0.1355 158 255 96
0.4179 0.9172 0.1945 255 179 0
0.4179 0.9172 0.2240 255 93 0
0.4179 0.9172 0.2536 255 7 0
0.4179 0.9172 0.3126 127 0 0
0.4179 0.9172 0.3421 127 0 0
0.4179 0.9172 0.3717 127 0 0
0.4248 0.9337 -0.0169 0 0 224
0.4247 0.9335 0.0134 0 57 255
0.4247 0.9332 0.0741 0 234 255
0.4247 0.9330 0.1044 67 255 187
0.4247 0.9328 0.1347 155 255 99
0.4246 0.9325 0.1953 255 177 0
0.4246 0.9323 0.2256 255 89 0
0.4246 0.9322 0.2559 255 1 0
0.4245 0.9318 0.3165 127 0 0
0.4245 0.9316 0.3467 127 0 0
0.4245 0.9315 0.3770 127 0 0
0.4187 0.9840 -0.0317 0 0 180
0.4156 1.0168 -0.0312 0 0 182
0.4194 1.0647 -0.0313 0 0 181
0.4089 1.1078 -0.0317 0 0 180
0.4172 1.1463 -0.0305 0 0 184
0.4097 1.1886 -0.0313 0 0 181
0.4192 1.2048 -0.0301 0 0 185
0.4247 1.2720 -0.0306 0 0 183
0.4244 1.3145 -0.0313 0 0 181
0.4124 1.3351 -0.0317 0 0 180
0.4131 1.3878 -0.0310 0 0 182
0.4147 1.4383 -0.0313 0 0 181
0.4028 1.4464 -0.0309 0 0 183
0.4047 1.4749 0.0338 0 116 255
0.4047 1.4749 0.0666 0 212 255
0.4047 1.4749 0.1158 100 255 154
0.4047 1.4749 0.1486 196 255 58
0.4047 1.4749 0.1978 255 170 0
0.4047 1.4749 0.2306 255 74 0
0.4047 1.4749 0.2798 186 0 0
0.4047 1.4749 0.3126 127 0 0
0.4047 1.4749 0.3454 127 0 0
0.4047 1.4749 0.3947 127 0 0
0.4198 1.5110 -0.0175 0 0 222
0.4198 1.5110 0.0190 0 73 255
0.4198 1.5110 0.0555 0 179 255
0.4198 1.5110 0.0920 31 255 223
0.4198 1.5111 0.1285 137 255 117
0.4198 1.5111 0.1650 244 255 10
0.4198 1.5111 0.2380 255 53 0
0.4198 1.5112 0.2745 201 0 0
0.4198 1.5112 0.3110 127 0 0
0.4198 1.5112 0.3475 127 0 0
0.4198 1.5112 0.3840 127 0 0
0.4195 1.5425 -0.0151 0 0 229
0.4195 1.5426 0.0209 0 79 255
0.4195 1.5426 0.0569 0 184 255
0.4195 1.5426 0.0929 34 255 220
0.4195 1.5427 0.1290 139 255 115
0.4195 1.5427 0.1650 244 255 10
0.4195 1.5428 0.2371 255 55 0
0.4195 1.5428 0.2731 205 0 0
0.4195 1.5428 0.3091 127 0 0
0.4195 1.5429 0.3452 127 0 0
0.4195 1.5429 0.3812 127 0 0
0.4617 -2.5842 -0.0083 0 0 249
0.4617 -2.5842 0.0165 0 66 255
0.4617 -2.5842 0.0660 0 210 255
0.4617 -2.5841 0.1155 99 255 155
0.4617 -2.5841 0.1402 171 255 83
0.4616 -2.5841 0.1898 255 193 0
0.4616 -2.5840 0.2393 255 49 0
0.4616 -2.5840 0.2640 232 0 0
0.4616 -2.5839 0.3135 127 0 0
0.4616 -2.5839 0.3383 127 0 0
0.4616 -2.5839 0.3878 127 0 0
0.4511 -2.5251 -0.0285 0 0 190
0.4618 -2.5559 0.0337 0 116 255
0.4618 -2.5559 0.0600 0 193 255
0.4618 -2.5558 0.1125 91 255 163
0.4618 -2.5558 0.1387 167 255 87
0.4618 -2.5558 0.1913 255 189 0
0.4618 -2.5558 0.2175 255 112 0
0.4618 -2.5558 0.2700 214 0 0
0.4618 -2.5558 0.2963 138 0 0
0.4618 -2.5558 0.3488 127 0 0
0.4618 -2.5558 0.3750 127 0 0
0.4700 -2.5099 -0.0285 0 0 190
0.4797 -2.4565 -0.0316 0 0 181
0.4770 -2.4367 -0.0319 0 0 180
0.4559 -2.3934 -0.0313 0 0 181
0.4735 -2.3358 -0.0319 0 0 180
0.4703 -2.3080 -0.0312 0 0 182
0.4733 -2.2737 -0.0322 0 0 179
0.4525 -2.2101 -0.0290 0 0 188
0.4694 -2.1965 -0.0290 0 0 188
0.4704 -2.1407 -0.0316 0 0 181
0.4789 -2.1048 -0.0313 0 0 182
0.4631 -2.0663 -0.0323 0 0 179
0.4676 -2.0263 -0.0324 0 0 178
0.4674 -1.9809 -0.0314 0 0 181
0.4689 -1.9446 -0.0294 0 0 187
0.4725 -1.8993 -0.0324 0 0 178
0.4764 -1.8599 -0.0324 0 0 178
0.4659 -1.8289 -0.0323 0 0 179
0.4791 -1.7738 -0.0316 0 0 181
0.4684 -1.7377 -0.0298 0 0 186
0.4742 -1.7111 -0.0324 0 0 178
0.4670 -1.6776 -0.0316 0 0 181
0.4773 -1.6669 0.0287 0 101 255
0.4773 -1.6669 0.0783 0 246 255
0.4773 -1.6668 0.1154 99 255 155
0.4773 -1.6668 0.1526 207 255 47
0.4772 -1.6667 0.1898 255 193 0
0.4772 -1.6667 0.2393 255 49 0
0.4772 -1.6666 0.2765 196 0 0
0.4772 -1.6666 0.3136 127 0 0
0.4772 -1.6665 0.3508 127 0 0
0.4771 -1.6665 0.3879 127 0 0
0.4535 -1.6106 -0.0318 0 0 180
0.4648 -1.6174 0.0268 0 96 255
0.4646 -1.6168 0.0729 0 230 255
0.4643 -1.6162 0.1190 109 255 145
0.4642 -1.6158 0.1497 199 255 55
0.4640 -1.6152 0.1957 255 176 0
0.4639 -1.6148 0.2263 255 87 0
0.4637 -1.6143 0.2722 208 0 0
0.4635 -1.6137 0.3181 127 0 0
0.4634 -1.6133 0.3487 127 0 0
0.4632 -1.6127 0.3945 127 0 0
0.4554 -1.5749 -0.0301 0 0 185
0.4496 -1.5641 0.0291 0 102 255
0.4496 -1.5641 0.0699 0 221 255
0.4496 -1.5641 0.1106 85 255 169
0.4496 -1.5641 0.1514 204 255 50
0.4496 -1.5640 0.1922 255 186 0
0.4496 -1.5640 0.2330 255 67 0
0.4496 -1.5640 0.2737 204 0 0
0.4496 -1.5640 0.3145 127 0 0
0.4496 -1.5640 0.3553 127 0 0
0.4496 -1.5640 0.3960 127 0 0
0.4410 -1.5215 -0.0107 0 0 242
0.4406 -1.5206 0.0299 0 105 255
0.4405 -1.5203 0.0435 0 144 255
0.4401 -1.5285 0.1107 85 255 169
0.4401 -1.5285 0.1541 212 255 42
0.4401 -1.5285 0.1976 255 170 0
0.4400 -1.5284 0.2302 255 76 0
0.4400 -1.5284 0.2736 204 0 0
0.4400 -1.5283 0.3170 127 0 0
0.4474 -1.5558 0.3519 127 0 0
0.4474 -1.5558 0.3944 127 0 0
0.4403 -1.5196 0.0705 0 223 255
0.4401 -1.5190 0.0976 47 255 207
0.4784 -1.2831 -0.0305 0 0 184
0.4463 -1.2823 0.0335 0 115 255
0.4463 -1.2823 0.0795 0 249 255
0.4463 -1.2823 0.1190 109 255 145
0.4463 -1.2824 0.1584 224 255 30
0.4463 -1.2824 0.1979 255 170 0
0.4463 -1.2824 0.2373 255 55 0
0.4462 -1.2825 0.2768 195 0 0
0.4462 -1.2825 0.3162 127 0 0
0.4483 -1.2903 0.3597 127 0 0
0.4462 -1.2826 0.3950 127 0 0
0.4677 -1.2470 -0.0322 0 0 179
0.4420 -1.2662 0.0368 0 125 255
0.4420 -1.2662 0.0773 0 243 255
0.4420 -1.2663 0.1178 106 255 148
0.4420 -1.2663 0.1583 224 255 30
0.4419 -1.2663 0.1987 255 167 0
0.4419 -1.2664 0.2392 255 49 0
0.4419 -1.2664 0.2796 186 0 0
0.4441 -1.2746 0.3181 127 0 0
0.4441 -1.2746 0.3580 127 0 0
0.4419 -1.2665 0.3942 127 0 0
0.4781 -1.2106 -0.0327 0 0 178
0.4775 -1.1742 -0.0307 0 0 183
0.4626 -1.1595 -0.0322 0 0 179
0.4481 -1.1018 -0.0308 0 0 183
0.4436 -1.0636 -0.0327 0 0 177
0.4777 -1.0133 -0.0325 0 0 178
0.4575 -0.9846 -0.0324 0 0 178
0.4418 -0.9491 -0.0074 0 0 251
0.4418 -0.9491 0.0357 0 122 255
0.4418 -0.9491 0.0788 0 247 255
0.4418 -0.9491 0.1133 93 255 161
0.4418 -0.9491 0.1564 218 255 36
0.4418 -0.9490 0.1995 255 165 0
0.4417 -0.9490 0.2340 255 64 0
0.4417 -0.9490 0.2771 194 0 0
0.4528 -0.9519 0.3194 127 0 0
0.4417 -0.9489 0.3547 127 0 0
0.4528 -0.9519 0.3967 127 0 0
0.4409 -0.8110 -0.0008 0 15 255
0.4408 -0.8109 0.0382 0 129 255
0.4408 -0.8109 0.0772 0 243 255
0.4407 -0.8108 0.1162 101 255 153
0.4407 -0.8107 0.1552 215 255 39
0.4407 -0.8107 0.1943 255 180 0
0.4406 -0.8106 0.2332 255 67 0
0.4406 -0.8105 0.2722 208 0 0
0.4405 -0.8104 0.3112 127 0 0
0.4405 -0.8103 0.3599 127 0 0
0.4405 -0.8103 0.3892 127 0 0
0.4514 -0.7717 -0.0059 0 0 255
0.4444 -0.7976 0.0393 0 132 255
0.4513 -0.7715 0.0796 0 250 255
0.4513 -0.7715 0.1175 105 255 149
0.4512 -0.7714 0.1555 216 255 38
0.4512 -0.7713 0.1935 255 182 0
0.4511 -0.7713 0.2314 255 72 0
0.4511 -0.7712 0.2789 189 0 0
0.4511 -0.7711 0.3168 127 0 0
0.4510 -0.7710 0.3548 127 0 0
0.4510 -0.7710 0.3927 127 0 0
0.4646 -0.7224 -0.0001 0 17 255
0.4646 -0.7223 0.0366 0 124 255
0.4645 -0.7222 0.0733 0 231 255
0.4645 -0.7222 0.1192 110 255 144
0.4644 -0.7221 0.1558 217 255 37
0.4644 -0.7220 0.1925 255 185 0
0.4643 -0.7220 0.2383 255 52 0
0.4643 -0.7219 0.2750 200 0 0
0.4643 -0.7218 0.3116 127 0 0
0.4642 -0.7218 0.3574 127 0 0
0.4642 -0.7217 0.3941 127 0 0
0.4739 -0.6875 -0.0049 0 3 255
0.4739 -0.6875 0.0398 0 134 255
0.4738 -0.6874 0.0756 0 238 255
0.4707 -0.6987 0.1199 112 255 142
0.4737 -0.6873 0.1561 218 255 36
0.4737 -0.6872 0.1918 255 187 0
0.4736 -0.6871 0.2365 255 57 0
0.4736 -0.6871 0.2722 208 0 0
0.4736 -0.6870 0.3169 127 0 0
0.4735 -0.6870 0.3526 127 0 0
0.4735 -0.6869 0.3973 127 0 0
0.4780 -0.6590 -0.0328 0 0 177
0.4798 -0.6652 0.0331 0 114 255
0.4798 -0.6651 0.0771 0 242 255
0.4797 -0.6651 0.1122 90 255 164
0.4797 -0.6650 0.1562 218 255 36
0.4797 -0.6650 0.1914 255 189 0
0.4796 -0.6649 0.2353 255 60 0
0.4796 -0.6648 0.2793 187 0 0
0.4795 -0.6648 0.3144 127 0 0
0.4795 -0.6647 0.3583 127 0 0
0.4794 -0.6646 0.3935 127 0 0
0.4756 -0.6014 -0.0328 0 0 177
0.4788 -0.6228 0.0372 0 126 255
0.4788 -0.6228 0.0748 0 236 255
0.4788 -0.6228 0.1199 112 255 142
0.4788 -0.6228 0.1575 222 255 32
0.4788 -0.6228 0.1951 255 178 0
0.4788 -0.6228 0.2327 255 68 0
0.4788 -0.6228 0.2778 192 0 0
0.4788 -0.6228 0.3154 127 0 0
0.4788 -0.6228 0.3530 127 0 0
0.4788 -0.6228 0.3906 127 0 0
0.4786 -0.5947 -0.0328 0 0 177
0.4792 -0.5350 -0.0329 0 0 177
0.4769 -0.4856 -0.0329 0 0 177
0.4798 -0.4794 -0.0329 0 0 177
0.4775 -0.4334 -0.0329 0 0 177
0.4522 -0.3653 -0.0319 0 0 180
0.4485 -0.3365 -0.0316 0 0 181
0.4403 -0.2832 -0.0324 0 0 178
0.4597 -0.2402 -0.0320 0 0 179
0.4490 -0.2270 -0.0318 0 0 180
0.4458 -0.1954 -0.0315 0 0 181
0.4439 -0.1593 -0.0322 0 0 179
0.4565 -0.1019 -0.0319 0 0 180
0.4452 -0.0613 -0.0316 0 0 181
0.4403 -0.0498 0.5115 127 0 0
0.4403 -0.0498 0.5480 127 0 0
0.4403 -0.0498 0.5844 127 0 0
0.4403 -0.0498 0.6391 127 0 0
0.4403 -0.0498 0.6756 127 0 0
0.4403 -0.0498 0.7121 127 0 0
0.4426 -0.0263 -0.0313 0 0 181
0.4459 -0.0076 0.2245 255 92 0
0.4459 -0.0076 0.2641 232 0 0
0.4459 -0.0076 0.3037 127 0 0
0.4459 -0.0076 0.3434 127 0 0
0.4459 -0.0076 0.3830 127 0 0
0.4459 -0.0076 0.4226 127 0 0
0.4459 -0.0076 0.4623 127 0 0
0.4732 -0.0249 0.5187 127 0 0
0.4732 -0.0249 0.5509 127 0 0
0.4732 -0.0249 0.5991 127 0 0
0.4732 -0.0249 0.6313 127 0 0
0.4732 -0.0249 0.6795 127 0 0
0.4732 -0.0249 0.7117 127 0 0
0.4700 0.0232 -0.0157 0 0 227
0.4699 0.0230 0.0245 0 89 255
0.4699 0.0228 0.0646 0 206 255
0.4699 0.0226 0.1048 68 255 186
0.4698 0.0224 0.1449 185 255 69
0.4698 0.0222 0.1851 255 207 0
0.4698 0.0220 0.2051 255 148 0
0.4494 0.0178 0.2689 218 0 0
0.4494 0.0178 0.3035 127 0 0
0.4494 0.0179 0.3555 127 0 0
0.4494 0.0180 0.3901 127 0 0
0.4494 0.0180 0.4248 127 0 0
0.4494 0.0181 0.4767 127 0 0
0.4494 0.0181 0.5114 127 0 0
0.4733 0.0204 0.5580 127 0 0
0.4734 0.0203 0.5937 127 0 0
0.4734 0.0202 0.6294 127 0 0
0.4734 0.0201 0.6651 127 0 0
0.4734 0.0201 0.7008 127 0 0
0.4527 0.0639 -0.0317 0 0 180
0.4504 0.0748 0.2284 255 81 0
0.4503 0.0746 0.2706 213 0 0
0.4503 0.0745 0.3128 127 0 0
0.4503 0.0743 0.3551 127 0 0
0.4502 0.0742 0.3973 127 0 0
0.4502 0.0740 0.4395 127 0 0
0.4502 0.0739 0.4606 127 0 0
0.4502 0.0738 0.5028 127 0 0
0.4798 0.0647 0.5575 127 0 0
0.4798 0.0647 0.5889 127 0 0
0.4798 0.0647 0.6361 127 0 0
0.4798 0.0648 0.6675 127 0 0
0.4798 0.0648 0.7146 127 0 0
0.4525 0.0906 -0.0322 0 0 179
0.4493 0.1009 0.2378 255 53 0
0.4493 0.1009 0.2742 202 0 0
0.4493 0.1010 0.3106 127 0 0
0.4493 0.1010 0.3471 127 0 0
0.4493 0.1011 0.3835 127 0 0
0.4493 0.1012 0.4381 127 0 0
0.4494 0.1012 0.4745 127 0 0
0.4494 0.1013 0.5110 127 0 0
0.4733 0.0887 0.5545 127 0 0
0.4733 0.0886 0.5915 127 0 0
0.4733 0.0885 0.6286 127 0 0
0.4734 0.0885 0.6657 127 0 0
0.4734 0.0884 0.7027 127 0 0
0.4405 0.1409 -0.0314 0 0 181
0.4493 0.1395 0.2288 255 80 0
0.4493 0.1395 0.2766 195 0 0
0.4493 0.1395 0.3085 127 0 0
0.4493 0.1395 0.3564 127 0 0
0.4493 0.1395 0.3883 127 0 0
0.4493 0.1395 0.4361 127 0 0
0.4493 0.1395 0.4680 127 0 0
0.4493 0.1395 0.5158 127 0 0
0.4493 0.1395 0.5477 127 0 0
0.4798 0.1313 0.5916 127 0 0
0.4797 0.1313 0.6244 127 0 0
0.4797 0.1314 0.6736 127 0 0
0.4797 0.1314 0.7064 127 0 0
0.4598 0.1850 -0.0311 0 0 182
0.4502 0.1973 0.2323 255 69 0
0.4502 0.1971 0.2772 194 0 0
0.4502 0.1970 0.2996 128 0 0
0.4502 0.1969 0.3445 127 0 0
0.4501 0.1967 0.3893 127 0 0
0.4501 0.1965 0.4341 127 0 0
0.4501 0.1964 0.4790 127 0 0
0.4501 0.1963 0.5014 127 0 0
0.4732 0.1625 0.5507 127 0 0
0.4733 0.1624 0.5892 127 0 0
0.4733 0.1623 0.6277 127 0 0
0.4733 0.1622 0.6663 127 0 0
0.4733 0.1621 0.7048 127 0 0
0.4428 0.2145 -0.0322 0 0 179
0.4493 0.2059 0.2316 255 71 0
0.4493 0.2059 0.2649 229 0 0
0.4493 0.2059 0.3149 127 0 0
0.4493 0.2059 0.3482 127 0 0
0.4493 0.2059 0.3982 127 0 0
0.4493 0.2059 0.4315 127 0 0
0.4493 0.2059 0.4648 127 0 0
0.4493 0.2059 0.5148 127 0 0
0.4493 0.2059 0.5481 127 0 0
0.4797 0.2042 0.5944 127 0 0
0.4797 0.2042 0.6288 127 0 0
0.4797 0.2043 0.6632 127 0 0
0.4797 0.2043 0.7147 127 0 0
0.4480 0.2662 -0.0316 0 0 181
0.4491 0.2746 0.2399 255 47 0
0.4491 0.2746 0.2774 193 0 0
0.4491 0.2746 0.3148 127 0 0
0.4491 0.2746 0.3523 127 0 0
0.4491 0.2746 0.3897 127 0 0
0.4491 0.2746 0.4272 127 0 0
0.4491 0.2746 0.4646 127 0 0
0.4491 0.2746 0.5021 127 0 0
0.4491 0.2746 0.5583 127 0 0
0.4732 0.2423 0.5867 127 0 0
0.4732 0.2422 0.6268 127 0 0
0.4732 0.2421 0.6669 127 0 0
0.4733 0.2420 0.7070 127 0 0
0.4506 0.3083 -0.0320 0 0 179
0.4506 0.2812 0.2310 255 73 0
0.4506 0.2812 0.2750 200 0 0
0.4506 0.2812 0.3190 127 0 0
0.4506 0.2812 0.3410 127 0 0
0.4506 0.2812 0.3850 127 0 0
0.4506 0.2812 0.4290 127 0 0
0.4506 0.2812 0.4730 127 0 0
0.4506 0.2812 0.5170 127 0 0
0.4506 0.2812 0.5390 127 0 0
0.4506 0.2812 0.5830 127 0 0
0.4796 0.2843 0.6337 127 0 0
0.4796 0.2844 0.6697 127 0 0
0.4796 0.2844 0.7058 127 0 0
0.4412 0.3213 -0.0319 0 0 180
0.4501 0.3361 0.2368 255 56 0
0.4501 0.3360 0.2607 242 0 0
0.4501 0.3358 0.3085 127 0 0
0.4500 0.3356 0.3563 127 0 0
0.4500 0.3355 0.3803 127 0 0
0.4500 0.3353 0.4281 127 0 0
0.4500 0.3351 0.4759 127 0 0
0.4499 0.3350 0.4998 127 0 0
0.4499 0.3348 0.5476 127 0 0
0.4731 0.3291 0.5839 127 0 0
0.4732 0.3289 0.6258 127 0 0
0.4732 0.3288 0.6676 127 0 0
0.4732 0.3287 0.7095 127 0 0
0.4591 0.3915 -0.0312 0 0 182
0.4736 0.3960 0.2171 255 114 0
0.4490 0.3695 0.2637 233 0 0
0.4490 0.3695 0.3032 127 0 0
0.4490 0.3695 0.3427 127 0 0
0.4490 0.3695 0.3822 127 0 0
0.4490 0.3695 0.4217 127 0 0
0.4490 0.3695 0.4612 127 0 0
0.4490 0.3695 0.5006 127 0 0
0.4490 0.3695 0.5599 127 0 0
0.4490 0.3695 0.5994 127 0 0
0.4490 0.3695 0.6388 127 0 0
0.4795 0.3728 0.6770 127 0 0
0.4795 0.3728 0.7149 127 0 0
0.4600 0.4353 -0.0329 0 0 177
0.4472 0.4318 0.2360 255 58 0
0.4472 0.4318 0.2748 201 0 0
0.4472 0.4318 0.3200 127 0 0
0.4472 0.4318 0.3587 127 0 0
0.4472 0.4318 0.3974 127 0 0
0.4472 0.4318 0.4233 127 0 0
0.4504 0.4172 0.4700 127 0 0
0.4504 0.4172 0.5169 127 0 0
0.4504 0.4172 0.5404 127 0 0
0.4504 0.4172 0.5873 127 0 0
0.4731 0.4235 0.6247 127 0 0
0.4731 0.4234 0.6684 127 0 0
0.4731 0.4233 0.7121 127 0 0
0.4625 0.4741 -0.0328 0 0 177
0.4472 0.4768 0.2386 255 51 0
0.4472 0.4768 0.2788 189 0 0
0.4472 0.4768 0.3189 127 0 0
0.4472 0.4768 0.3591 127 0 0
0.4472 0.4405 0.3991 127 0 0
0.4471 0.4768 0.4327 127 0 0
0.4489 0.4754 0.4781 127 0 0
0.4489 0.4754 0.5199 127 0 0
0.4489 0.4754 0.5408 127 0 0
0.4489 0.4754 0.5825 127 0 0
0.4489 0.4754 0.6243 127 0 0
0.4489 0.4754 0.6660 127 0 0
0.4794 0.4709 0.7050 127 0 0
0.4651 0.5156 -0.0328 0 0 177
0.4472 0.4957 0.2397 255 48 0
0.4472 0.4862 0.2796 186 0 0
0.4471 0.5152 0.3167 127 0 0
0.4471 0.5152 0.3581 127 0 0
0.4471 0.5152 0.3994 127 0 0
0.4471 0.5054 0.4387 127 0 0
0.4471 0.5152 0.4408 127 0 0
0.4498 0.4934 0.4979 127 0 0
0.4498 0.4932 0.5491 127 0 0
0.4498 0.4931 0.5747 127 0 0
0.4497 0.4928 0.6259 127 0 0
0.4497 0.4926 0.6770 127 0 0
0.4497 0.4925 0.7026 127 0 0
0.4715 0.5538 -0.0328 0 0 177
0.4471 0.5561 0.2361 255 58 0
0.4471 0.5561 0.2788 189 0 0
0.4471 0.5353 0.3190 127 0 0
0.4471 0.5252 0.3595 127 0 0
0.4471 0.5561 0.3996 127 0 0
0.4471 0.5353 0.4380 127 0 0
0.4471 0.5561 0.4494 127 0 0
0.4490 0.5414 0.5088 127 0 0
0.4490 0.5415 0.5546 127 0 0
0.4490 0.5416 0.5776 127 0 0
0.4730 0.5270 0.6234 127 0 0
0.4730 0.5269 0.6692 127 0 0
0.4731 0.5268 0.7151 127 0 0
0.4784 0.5949 -0.0328 0 0 177
0.4471 0.5995 0.2384 255 52 0
0.4471 0.5667 0.2797 186 0 0
0.4471 0.5995 0.3191 127 0 0
0.4471 0.5667 0.3585 127 0 0
0.4471 0.5995 0.3998 127 0 0
0.4471 0.5774 0.4395 127 0 0
0.4471 0.5995 0.4586 127 0 0
0.4503 0.5726 0.5167 127 0 0
0.4503 0.5726 0.5419 127 0 0
0.4503 0.5726 0.5921 127 0 0
0.4503 0.5726 0.6172 127 0 0
0.4503 0.5726 0.6675 127 0 0
0.4793 0.5803 0.7151 127 0 0
0.4560 0.6347 -0.0328 0 0 177
0.4471 0.6223 0.2396 255 48 0
0.4471 0.6340 0.2778 192 0 0
0.4471 0.6340 0.3154 127 0 0
0.4471 0.6223 0.3589 127 0 0
0.4471 0.6340 0.3981 127 0 0
0.4471 0.6108 0.4387 127 0 0
0.4471 0.6340 0.4658 127 0 0
0.4491 0.6180 0.5005 127 0 0
0.4491 0.6180 0.5597 127 0 0
0.4491 0.6180 0.5992 127 0 0
0.4491 0.6180 0.6386 127 0 0
0.4491 0.6180 0.6781 127 0 0
0.4491 0.6180 0.7176 127 0 0
0.4664 0.6738 -0.0328 0 0 177
0.4471 0.6702 0.2344 255 63 0
0.4471 0.6580 0.2797 186 0 0
0.4471 0.6702 0.3192 127 0 0
0.4471 0.6702 0.3578 127 0 0
0.4471 0.6702 0.3963 127 0 0
0.4471 0.6459 0.4380 127 0 0
0.4471 0.6702 0.4734 127 0 0
0.4496 0.6761 0.4958 127 0 0
0.4496 0.6758 0.5509 127 0 0
0.4496 0.6757 0.5784 127 0 0
0.4495 0.6754 0.6335 127 0 0
0.4729 0.6407 0.6702 127 0 0
0.4730 0.6405 0.7182 127 0 0
0.4777 0.7161 -0.0327 0 0 177
0.4471 0.7084 0.2362 255 58 0
0.4471 0.7084 0.2758 198 0 0
0.4471 0.7084 0.3153 127 0 0
0.4471 0.6827 0.3594 127 0 0
0.4471 0.6827 0.3983 127 0 0
0.4471 0.6954 0.4395 127 0 0
0.4471 0.6954 0.4787 127 0 0
0.4471 0.7084 0.4815 127 0 0
0.4489 0.6896 0.5571 127 0 0
0.4489 0.6897 0.5816 127 0 0
0.4489 0.6898 0.6306 127 0 0
0.4489 0.6899 0.6797 127 0 0
0.4489 0.6899 0.7042 127 0 0
0.4535 0.7592 -0.0327 0 0 177
0.4471 0.7485 0.2381 255 52 0
0.4471 0.7485 0.2787 189 0 0
0.4471 0.7485 0.3193 127 0 0
0.4471 0.7485 0.3599 127 0 0
0.4471 0.7349 0.3985 127 0 0
0.4471 0.7349 0.4387 127 0 0
0.4471 0.7349 0.4790 127 0 0
0.4471 0.7485 0.4899 127 0 0
0.4501 0.7516 0.5436 127 0 0
0.4501 0.7516 0.5977 127 0 0
0.4501 0.7516 0.6247 127 0 0
0.4501 0.7516 0.6788 127 0 0
0.4501 0.7516 0.7059 127 0 0
0.4731 0.7921 -0.0327 0 0 177
0.4488 0.7743 0.2332 255 67 0
0.4488 0.7743 0.2787 189 0 0
0.4488 0.7743 0.3014 127 0 0
0.4488 0.7743 0.3469 127 0 0
0.4488 0.7743 0.3924 127 0 0
0.4488 0.7743 0.4379 127 0 0
0.4488 0.7743 0.4606 127 0 0
0.4488 0.7742 0.5061 127 0 0
0.4488 0.7742 0.5516 127 0 0
0.4488 0.7742 0.5971 127 0 0
0.4488 0.7742 0.6198 127 0 0
0.4728 0.7663 0.6712 127 0 0
0.4729 0.7662 0.6965 127 0 0
0.4633 0.8190 -0.0313 0 0 181
0.4799 0.8035 0.2173 255 113 0
0.4489 0.8296 0.2750 200 0 0
0.4489 0.8296 0.3190 127 0 0
0.4489 0.8296 0.3410 127 0 0
0.4489 0.8296 0.3850 127 0 0
0.4489 0.8296 0.4290 127 0 0
0.4489 0.8296 0.4730 127 0 0
0.4489 0.8296 0.5170 127 0 0
0.4489 0.8296 0.5390 127 0 0
0.4489 0.8296 0.5830 127 0 0
0.4489 0.8296 0.6270 127 0 0
0.4489 0.8296 0.6710 127 0 0
0.4489 0.8296 0.7150 127 0 0
0.4626 0.8405 -0.0310 0 0 182
0.4491 0.8668 0.2242 255 93 0
0.4486 0.8591 0.2703 214 0 0
0.4486 0.8591 0.2966 137 0 0
0.4486 0.8592 0.3492 127 0 0
0.4487 0.8593 0.3756 127 0 0
0.4487 0.8594 0.4282 127 0 0
0.4487 0.8595 0.4546 127 0 0
0.4487 0.8596 0.5072 127 0 0
0.4487 0.8597 0.5599 127 0 0
0.4487 0.8598 0.5862 127 0 0
0.4487 0.8599 0.6389 127 0 0
0.4487 0.8599 0.6652 127 0 0
0.4488 0.8601 0.7179 127 0 0
0.4457 0.9173 -0.0117 0 0 239
0.4457 0.9173 0.0178 0 69 255
0.4457 0.9173 0.0767 0 241 255
0.4457 0.9172 0.1061 72 255 182
0.4457 0.9172 0.1356 158 255 96
0.4457 0.9172 0.1944 255 180 0
0.4496 0.8903 0.2247 255 91 0
0.4496 0.8902 0.2546 255 4 0
0.4496 0.8899 0.3143 127 0 0
0.4496 0.8897 0.3441 127 0 0
0.4495 0.8895 0.3740 127 0 0
0.4495 0.8892 0.4337 127 0 0
0.4495 0.8891 0.4635 127 0 0
0.4495 0.8889 0.4933 127 0 0
0.4494 0.8886 0.5530 127 0 0
0.4494 0.8884 0.5828 127 0 0
0.4494 0.8883 0.6126 127 0 0
0.4493 0.8880 0.6722 127 0 0
0.4727 0.9056 0.6990 127 0 0
0.4488 0.9547 0.4217 127 0 0
0.4488 0.9547 0.4684 127 0 0
0.4488 0.9547 0.5151 127 0 0
0.4488 0.9547 0.5384 127 0 0
0.4488 0.9547 0.5851 127 0 0
0.4488 0.9547 0.6318 127 0 0
0.4488 0.9547 0.6784 127 0 0
0.4488 0.9547 0.7018 127 0 0
0.4469 0.9982 -0.0323 0 0 179
0.4500 0.9603 0.4285 127 0 0
0.4500 0.9603 0.4578 127 0 0
0.4500 0.9603 0.5164 127 0 0
0.4500 0.9603 0.5456 127 0 0
0.4500 0.9603 0.5749 127 0 0
0.4500 0.9603 0.6335 127 0 0
0.4500 0.9603 0.6628 127 0 0
0.4500 0.9603 0.6920 127 0 0
0.4443 1.0328 -0.0320 0 0 179
0.4542 1.0703 -0.0319 0 0 180
0.4482 1.1109 -0.0317 0 0 180
0.4521 1.1230 -0.0322 0 0 179
0.4586 1.1925 -0.0313 0 0 181
0.4580 1.2364 -0.0317 0 0 180
0.4573 1.2701 -0.0306 0 0 183
0.4489 1.3164 -0.0313 0 0 181
0.4517 1.3365 -0.0317 0 0 180
0.4410 1.3900 -0.0310 0 0 182
0.4410 1.4373 -0.0316 0 0 181
0.4679 1.4518 -0.0309 0 0 183
0.4592 1.5161 -0.0310 0 0 182
0.4469 1.5183 0.0278 0 99 255
0.4469 1.5183 0.0670 0 213 255
0.4469 1.5183 0.1062 72 255 182
0.4469 1.5183 0.1454 186 255 68
0.4469 1.5183 0.1846 255 208 0
0.4469 1.5182 0.2238 255 94 0
0.4469 1.5182 0.2630 235 0 0
0.4469 1.5182 0.3022 127 0 0
0.4469 1.5182 0.3414 127 0 0
0.4469 1.5182 0.3806 127 0 0
0.4609 1.5521 -0.0198 0 0 215
0.4609 1.5521 0.0171 0 68 255
0.4609 1.5522 0.0541 0 175 255
0.4609 1.5522 0.0911 28 255 226
0.4609 1.5522 0.1280 136 255 118
0.4609 1.5522 0.1650 244 255 10
0.4609 1.5523 0.2389 255 50 0
0.4609 1.5523 0.2759 197 0 0
0.4609 1.5523 0.3129 127 0 0
0.4609 1.5524 0.3498 127 0 0
0.4609 1.5524 0.3868 127 0 0
0.4574 1.5805 -0.0166 0 0 224
0.4574 1.5805 0.0197 0 75 255
0.4574 1.5805 0.0560 0 181 255
0.4574 1.5806 0.0923 32 255 222
0.4574 1.5806 0.1287 138 255 116
0.4574 1.5806 0.1650 244 255 10
0.4574 1.5807 0.2377 255 54 0
0.4574 1.5807 0.2740 203 0 0
0.4574 1.5808 0.3103 127 0 0
0.4574 1.5808 0.3466 127 0 0
0.4574 1.5808 0.3830 127 0 0
0.5064 -2.5842 -0.0104 0 0 242
0.5064 -2.5842 0.0397 0 133 255
0.5064 -2.5842 0.0648 0 206 255
0.5064 -2.5841 0.1149 98 255 156
0.5064 -2.5841 0.1399 171 255 83
0.5064 -2.5840 0.1901 255 192 0
0.4839 -2.5840 0.2397 255 48 0
0.5063 -2.5840 0.2652 228 0 0
0.5063 -2.5839 0.3153 127 0 0
0.5063 -2.5839 0.3404 127 0 0
0.5063 -2.5839 0.3905 127 0 0
0.5167 -2.5549 -0.0309 0 0 183
0.5119 -2.5559 0.0342 0 117 255
0.5119 -2.5559 0.0603 0 194 255
0.5119 -2.5558 0.1127 91 255 163
0.5119 -2.5558 0.1388 167 255 87
0.5119 -2.5558 0.1912 255 189 0
0.5119 -2.5558 0.2173 255 113 0
0.5119 -2.5558 0.2697 215 0 0
0.5119 -2.5558 0.2958 139 0 0
0.5119 -2.5558 0.3481 127 0 0
0.5119 -2.5558 0.3743 127 0 0
0.4888 -2.4946 -0.0285 0 0 190
0.5077 -2.4794 -0.0285 0 0 190
0.5043 -2.4014 -0.0313 0 0 181
0.4801 -2.3974 -0.0313 0 0 181
0.5172 -2.3333 -0.0319 0 0 180
0.5165 -2.2809 -0.0322 0 0 179
0.4949 -2.2773 -0.0322 0 0 179
0.5011 -2.2302 -0.0312 0 0 182
0.5030 -2.1693 -0.0290 0 0 188
0.5198 -2.1558 -0.0290 0 0 188
0.5175 -2.1105 -0.0312 0 0 182
0.5020 -2.0727 -0.0323 0 0 179
0.5069 -2.0274 -0.0323 0 0 178
0.5104 -1.9729 -0.0314 0 0 181
0.4992 -1.9201 -0.0294 0 0 187
0.5143 -1.9079 -0.0294 0 0 187
0.5122 -1.8609 -0.0324 0 0 178
0.5078 -1.8020 -0.0315 0 0 181
0.5136 -1.8017 0.0396 0 133 255
0.5136 -1.8017 0.0772 0 243 255
0.5136 -1.8017 0.1148 97 255 157
0.5136 -1.8017 0.1525 207 255 47
0.5136 -1.8016 0.1901 255 192 0
0.5136 -1.8016 0.2277 255 83 0
0.5136 -1.8016 0.2779 191 0 0
0.5136 -1.8016 0.3155 127 0 0
0.5136 -1.8016 0.3531 127 0 0
0.5136 -1.8016 0.3908 127 0 0
0.5159 -1.7840 -0.0007 0 16 255
0.5153 -1.7821 0.0362 0 123 255
0.5148 -1.7802 0.0731 0 231 255
0.5143 -1.7784 0.1099 83 255 171
0.5137 -1.7765 0.1467 190 255 64
0.5132 -1.7746 0.1833 255 212 0
0.5124 -1.7719 0.2382 255 52 0
0.5118 -1.7700 0.2746 201 0 0
0.5113 -1.7681 0.3110 127 0 0
0.5108 -1.7663 0.3473 127 0 0
0.5102 -1.7644 0.3835 127 0 0
0.4822 -1.7265 -0.0298 0 0 186
0.5001 -1.7518 0.0317 0 110 255
0.5001 -1.7517 0.0717 0 227 255
0.5001 -1.7516 0.1117 88 255 166
0.5001 -1.7516 0.1517 205 255 49
0.5000 -1.7515 0.1916 255 188 0
0.5000 -1.7515 0.2316 255 71 0
0.5000 -1.7514 0.2716 210 0 0
0.5000 -1.7514 0.3115 127 0 0
0.5000 -1.7513 0.3515 127 0 0
0.4999 -1.7513 0.3914 127 0 0
0.4961 -1.7154 -0.0298 0 0 186
0.4885 -1.6906 0.0393 0 132 255
0.4885 -1.6905 0.0707 0 224 255
0.4884 -1.6904 0.1179 106 255 148
0.4884 -1.6904 0.1493 198 255 56
0.4884 -1.6903 0.1964 255 174 0
0.4884 -1.6902 0.2278 255 82 0
0.4883 -1.6901 0.2749 200 0 0
0.4883 -1.6900 0.3063 127 0 0
0.4883 -1.6899 0.3534 127 0 0
0.4883 -1.6899 0.3848 127 0 0
0.4818 -1.6798 -0.0316 0 0 181
0.4801 -1.6777 0.0301 0 105 255
0.4801 -1.6777 0.0705 0 223 255
0.4801 -1.6777 0.1110 86 255 168
0.4801 -1.6777 0.1515 204 255 50
0.4801 -1.6777 0.1920 255 187 0
0.4801 -1.6777 0.2325 255 69 0
0.4801 -1.6777 0.2729 206 0 0
0.4801 -1.6777 0.3134 127 0 0
0.4801 -1.6777 0.3539 127 0 0
0.4801 -1.6777 0.3944 127 0 0
0.4993 -1.6353 -0.0051 0 3 255
0.4993 -1.6353 0.0374 0 127 255
0.4993 -1.6353 0.0799 0 251 255
0.4993 -1.6353 0.1154 99 255 155
0.4993 -1.6353 0.1579 223 255 31
0.4938 -1.6149 0.1997 255 164 0
0.4993 -1.6353 0.2359 255 59 0
0.4993 -1.6353 0.2784 190 0 0
0.4965 -1.6250 0.3194 127 0 0
0.4938 -1.6148 0.3595 127 0 0
0.4965 -1.6250 0.3965 127 0 0
0.4885 -1.5952 -0.0052 0 3 255
0.4885 -1.5952 0.0357 0 122 255
0.4885 -1.5952 0.0765 0 241 255
0.4885 -1.5952 0.1173 105 255 149
0.4885 -1.5952 0.1582 224 255 30
0.4885 -1.5952 0.1990 255 166 0
0.4885 -1.5952 0.2399 255 47 0
0.4860 -1.5857 0.2796 187 0 0
0.4835 -1.5764 0.3185 127 0 0
0.4835 -1.5764 0.3586 127 0 0
0.4810 -1.5672 0.3963 127 0 0
0.5147 -1.3802 -0.0303 0 0 184
0.5183 -1.3394 -0.0321 0 0 179
0.5111 -1.2568 -0.0305 0 0 184
0.5109 -1.2116 -0.0326 0 0 178
0.5124 -1.1712 -0.0328 0 0 177
0.4930 -1.1573 -0.0327 0 0 178
0.4807 -1.0834 -0.0327 0 0 177
0.5135 -1.0645 -0.0325 0 0 178
0.4855 -1.0126 -0.0325 0 0 178
0.4855 -0.9605 -0.0041 0 6 255
0.4855 -0.9605 0.0382 0 129 255
0.4855 -0.9606 0.0720 0 228 255
0.4855 -0.9606 0.1143 96 255 158
0.4856 -0.9607 0.1565 219 255 35
0.4856 -0.9607 0.1988 255 167 0
0.4856 -0.9608 0.2326 255 68 0
0.4856 -0.9607 0.2749 200 0 0
0.4856 -0.9607 0.3172 127 0 0
0.4856 -0.9607 0.3594 127 0 0
0.4856 -0.9607 0.3933 127 0 0
0.4936 -0.9299 -0.0017 0 13 255
0.4881 -0.9506 0.0366 0 124 255
0.4882 -0.9507 0.0794 0 249 255
0.4882 -0.9507 0.1137 94 255 160
0.4882 -0.9507 0.1564 219 255 35
0.4883 -0.9508 0.1992 255 166 0
0.4883 -0.9508 0.2335 255 66 0
0.4883 -0.9509 0.2762 196 0 0
0.4883 -0.9509 0.3190 127 0 0
0.4884 -0.9510 0.3532 127 0 0
0.4884 -0.9510 0.3960 127 0 0
0.5055 -0.8854 -0.0013 0 14 255
0.4994 -0.9083 0.0390 0 131 255
0.4965 -0.9193 0.0761 0 240 255
0.5025 -0.8971 0.1194 111 255 143
0.4966 -0.9194 0.1561 218 255 36
0.4966 -0.9195 0.1917 255 188 0
0.4967 -0.9195 0.2361 255 58 0
0.4967 -0.9196 0.2716 210 0 0
0.4967 -0.9196 0.3160 127 0 0
0.4967 -0.9197 0.3515 127 0 0
0.4968 -0.9197 0.3959 127 0 0
0.5087 -0.8735 -0.0035 0 7 255
0.5153 -0.8488 0.0399 0 134 255
0.5120 -0.8614 0.0796 0 250 255
0.5088 -0.8737 0.1182 107 255 147
0.5088 -0.8737 0.1556 216 255 38
0.5088 -0.8738 0.1931 255 184 0
0.5089 -0.8738 0.2399 255 47 0
0.5089 -0.8739 0.2773 193 0 0
0.5089 -0.8739 0.3147 127 0 0
0.5089 -0.8740 0.3522 127 0 0
0.5090 -0.8740 0.3896 127 0 0
0.5187 -0.8359 -0.0008 0 15 255
0.5188 -0.8359 0.0382 0 129 255
0.5188 -0.8360 0.0772 0 243 255
0.5188 -0.8360 0.1162 101 255 153
0.5188 -0.8361 0.1552 215 255 39
0.5189 -0.8361 0.1943 255 180 0
0.5189 -0.8362 0.2333 255 66 0
0.5189 -0.8363 0.2723 208 0 0
0.5190 -0.8363 0.3113 127 0 0
0.5190 -0.8364 0.3503 127 0 0
0.5190 -0.8364 0.3892 127 0 0
0.5172 -0.7785 -0.0002 0 17 255
0.5172 -0.7785 0.0387 0 130 255
0.5135 -0.7924 0.0787 0 247 255
0.5136 -0.7925 0.1170 104 255 150
0.5136 -0.7925 0.1554 216 255 38
0.5136 -0.7925 0.1938 255 182 0
0.5136 -0.7925 0.2321 255 70 0
0.5136 -0.7926 0.2705 213 0 0
